# .PCD v0.7 - Point Cloud Data file format
VERSION 0.7
FIELDS x y z
SIZE 4 4 4
TYPE F F F
COUNT 1 1 1
WIDTH 1374
HEIGHT 1
VIEWPOINT 0 0 0 1 0 0 0
POINTS 1374
DATA ascii
-0.31567127 -0.5879941 0.40398499
-0.067487031 -0.27032605 -0.23819159
-0.028819939 0.744461 -0.18024074
0.29417425 -0.84240854 -0.060428005
0.29684585 -0.19175 -0.019297302
-0.13460188 -0.27777201 -0.18299356
0.32971299 -0.21332517 0.30897918
-0.059373654 0.60045302 -0.20591347
-0.1315859 0.47986865 -0.12714322
0.30237359 0.2847746 -0.12366514
0.025675047 0.20134047 -0.2040181
0.14086425 -0.27777201 -0.17693049
-0.15888487 -0.27777201 0.024685182
0.23399271 0.69940877 -0.19865127
0.11024968 0.2353476 -0.13555177
-0.3104414 -0.45805001 -0.092269838
0.25191879 0.50431359 -0.064046413
-0.26153165 -0.010561984 -0.055666149
-0.016688216 0.16476625 -0.14324909
0.23979925 0.55139983 -0.10824757
-0.022825137 0.15801799 -0.15517667
0.18379807 0.34301773 -0.11687709
-0.14531359 -0.19175002 0.11800853
-0.13443075 -0.030953616 -0.12679143
-0.16429058 -0.27777201 -0.18752249
-0.1723509 0.17467344 -0.17627738
-0.037876949 -0.19175 0.31363699
-0.28819701 -0.67626995 -0.07793089
-0.16304944 -0.012546778 -0.13945796
0.17190361 -0.19174999 0.18893507
0.075457521 -0.27777201 0.28553134
-0.31932724 -0.21192732 0.232647
0.18822309 0.26850688 -0.13116133
0.087591819 -0.19175 0.12160584
-0.036242284 -0.19174999 0.13697213
0.12883897 -0.27777201 0.18618783
0.12937593 0.051547751 -0.16977288
-0.30521485 -0.39670745 -0.072338998
-0.052911863 0.60045302 -0.18618162
0.30461621 0.36848122 -0.12168979
-0.24678445 -0.19175 0.051365644
0.31523383 0.49866521 -0.09776327
0.33240601 -0.52145302 0.39215726
-0.10476954 0.11300807 -0.19165757
0.21806291 0.60045302 -0.15576518
-0.33502051 -0.27777201 -0.10098577
0.042652518 0.49302483 -0.19406608
-0.32079041 -0.82948852 -0.072338998
0.3405267 0.6962955 -0.11549936
-0.073488407 -0.27462554 -0.23713282
0.26980883 -0.19175 -0.10672424
-0.064360797 -0.25150797 0.41576499
-0.17078546 0.040730789 -0.18007593
0.053503316 0.21616732 -0.17105514
0.19165029 0.68068588 -0.21692622
-0.31660572 -0.82325399 -0.062447846
0.29622877 -0.82325399 -0.062470656
-0.32206511 -0.37504932 0.36819804
0.33240601 -0.74832451 0.37845808
-0.15212107 0.17591095 -0.20098066
-0.28259268 0.4937132 -0.12315781
-0.335765 -0.27366987 0.12606874
-0.025868688 0.70751762 -0.10815146
-0.28888083 -0.82325399 0.37339786
0.31396165 -0.19145973 -0.10554689
-0.23609288 0.60592711 -0.18945147
-0.27877742 -0.1085682 -0.12608492
-0.14954627 0.34281752 -0.20204745
0.18787235 0.52731997 -0.12849794
0.17771105 0.42228857 -0.10872299
-0.335765 -0.22518355 0.084705874
0.12774976 -0.19175002 0.039997566
0.14159673 -0.27777201 0.37960759
-0.22415614 -0.046054751 -0.071888089
0.31086272 -0.75813985 -0.107995
0.31147337 -0.63222134 -0.107995
-0.31564733 -0.82786679 0.41576499
-0.25562319 0.24440724 -0.13357458
0.21584195 -0.21620122 -0.18704654
0.10554446 -0.27777201 0.25156611
-0.21314889 -0.19175002 0.34797612
-0.060963817 -0.27777201 0.023881048
-0.29390603 -0.67983061 -0.108126
-0.069272399 -0.27777201 -0.14651084
-0.13047677 -0.040858965 -0.20495811
-0.335765 -0.24110159 0.089542344
0.16323446 -0.19174999 -0.1101013
-0.21743146 -0.082501516 -0.099214412
-0.022767022 0.52274209 -0.15503637
-0.32236704 -0.27777201 0.035433851
-0.25391629 0.22497614 -0.13334996
-0.31333554 -0.81939 -0.072338998
0.33670884 0.67967629 -0.11037458
0.034077443 0.061148331 -0.13207877
-0.30298027 -0.36482823 -0.072338998
-0.22112581 0.038642719 -0.076869547
0.27303556 0.60045302 -0.09799625
0.33419669 -0.82325399 -0.061628096
0.12099735 -0.19175002 -0.044691809
-0.22807664 -0.27777201 -0.012761205
-0.1602889 0.62955594 -0.22159433
0.30748755 -0.65199161 -0.072208002
0.031225327 -0.17205067 -0.20171878
0.22736946 -0.27777201 -0.15552123
0.32017171 -0.27777201 0.12092668
-0.025852419 -0.19174999 -0.045514092
-0.23460421 0.60045302 -0.11388894
-0.10815713 -0.19175 -0.019676015
-0.27064222 -0.27454752 -0.16564892
-0.18763487 -0.27777201 0.046330623
-0.0097393962 0.67275107 -0.10909106
0.15045506 0.40750158 -0.096845388
0.32357731 -0.20895769 0.32579863
-0.29704458 -0.72473586 0.36819801
-0.072727963 -0.27777201 -0.11306444
-0.097520851 0.54919761 -0.17915544
0.31983447 -0.77326787 -0.072208002
0.296619 -0.52535534 -0.094519101
-0.33068845 0.73695248 -0.12669925
0.28777936 -0.27777201 -0.083647959
-0.0048320969 0.59961271 -0.13221326
-0.060901992 0.73761809 -0.24487859
0.1452547 0.11352356 -0.097284935
0.16142306 -0.19827549 0.38014838
0.31212163 0.41094172 -0.10998959
0.051546745 -0.0092131197 -0.17948726
0.296619 -0.84430051 -0.092691988
-0.25220627 0.2506727 -0.13312495
0.022102602 0.4141677 -0.12792794
0.044418734 -0.12274279 -0.14085177
0.29177755 -0.8523218 0.41576499
-0.097907051 -0.073195599 -0.15215978
0.32011876 0.65043294 -0.14709541
-0.28819701 -0.6902076 -0.092344239
-0.10216047 0.25366968 -0.18825738
0.014392542 -0.23749256 -0.24299259
0.20562412 0.72029048 -0.21089514
-0.29745725 0.744461 -0.14606513
-0.15216041 -0.27777201 0.40775728
0.14152557 -0.27648997 0.41576499
0.08352688 0.69622254 -0.24385262
0.015361014 0.16479145 -0.2055752
-0.323984 -0.64926046 -0.086604424
-0.21977058 0.744461 -0.060067493
0.19807346 0.72232491 -0.060059842
-0.30582744 -0.20231795 0.090908512
0.34418699 -0.23147379 0.3712903
-0.02727142 -0.19174999 0.14226013
0.13757427 0.56900728 -0.098795317
0.33240604 -0.69311607 0.38768047
0.14744706 -0.19174999 -0.11461945
-0.23124215 0.72431612 -0.026871867
-0.25981021 0.46902376 -0.055439595
0.15377557 -0.19175 -0.14983884
0.15698045 -0.27777201 0.2415417
0.050190121 0.5796088 -0.182762
0.26809606 0.093899429 -0.056228139
-0.041908145 -0.27777201 0.41222367
0.048971534 -0.27777201 0.31559962
0.34418699 -0.2577405 -0.1149331
-0.13491288 -0.27777201 -0.081220493
0.16492663 0.083849236 -0.17190763
0.16456717 -0.27777201 -0.026680328
-0.25574291 -0.27777201 0.32448834
0.19117872 -0.27777201 0.24046357
0.17505553 0.31781071 -0.16564299
-0.323984 -0.61011052 0.37672189
-0.31734994 -0.21051985 0.27888954
0.2536459 -0.19175 -0.060062025
0.31150934 0.093159303 -0.077509984
0.30719405 0.57737786 -0.1183307
0.045984596 -0.084361531 -0.18972351
0.24804884 0.45688161 -0.067258283
0.21821904 -0.27777201 0.24372858
0.10382233 -0.27777201 0.3992604
0.321962 -0.65721256 0.40398502
0.29395333 -0.27777201 0.2557162
-0.27901888 -0.27777201 0.025525264
0.30135259 0.27411485 -0.12444857
0.30758905 -0.27777201 -0.086458415
0.16394469 -0.024497177 -0.17231432
0.32243466 -0.65708393 0.36819798
-0.335765 -0.24938194 0.10508511
0.29624528 -0.27777201 0.077891029
-0.011778651 0.42987129 -0.19509201
0.12231765 0.54558969 -0.10777592
-0.31769973 0.66757798 -0.13637573
-0.12846155 -0.23920247 0.41576499
-0.21806023 -0.067131683 -0.10398911
0.13407698 -0.19175 -0.16171129
-0.10304299 -0.19175 -0.034140795
-0.095572039 -0.19140503 -0.16178012
0.051755998 -0.22357257 -0.24073696
-0.23331858 0.41089863 -0.062633365
-0.18640794 0.744461 -0.11598825
-0.035162937 -0.27777201 0.014963653
0.018177904 0.56460065 -0.12741148
-0.14911692 -0.27777201 0.059443735
-0.21680897 0.38002095 -0.094487682
-0.28110617 0.20687637 -0.12429829
-0.11589929 0.64356202 -0.23489127
-0.26818821 -0.27777201 0.14495924
-0.26426864 -0.27777201 0.063702196
-0.19734886 -0.19175 0.22767234
-0.29429802 -0.15295702 -0.085390896
-0.07133285 -0.19174999 -0.083368599
-0.27431816 0.744461 -0.093035117
0.14781243 -0.27777201 0.14192602
0.33240604 -0.62694687 0.39764348
-0.23598747 0.53268111 -0.12801048
-0.21108374 -0.19175 0.092105716
-0.14988312 -0.27777201 -0.10780983
0.1251673 0.60045302 -0.16103977
-0.27524886 0.60045302 -0.071653768
-0.065768704 0.64411646 -0.1024012
-0.28819701 -0.83443165 -0.077572562
-0.27485064 0.070201188 -0.059833117
0.061740577 -0.19175 -0.053019933
0.17883565 -0.097563386 -0.11018841
-0.23410977 0.60045302 -0.12116908
-0.12191428 0.57073545 -0.20319626
0.2171219 -0.19175 -0.097929098
0.30381572 -0.27777201 -0.062694304
0.27234873 0.18369709 -0.13330927
0.056711063 -0.19175 -0.088509992
0.049335338 -0.11585048 -0.18482535
0.1429245 0.21931052 -0.097591572
-0.21189912 -0.19175 0.27918136
-0.32045391 -0.57543093 -0.108126
-0.31858468 -0.2686227 -0.13257489
-0.052074954 -0.27777201 0.40441275
0.34418699 -0.23374322 0.25393391
-0.18483013 -0.19175 0.29763156
0.02123628 -0.27777201 -0.10698576
-0.16646433 -0.13234924 -0.14390847
0.06405887 -0.19174999 0.32888234
-0.28819701 -0.66700709 -0.10645153
-0.22202833 -0.15209506 -0.074690387
-0.09613689 -0.031936482 -0.17475711
0.0675468 -0.19175 0.044090465
0.296619 -0.52652633 0.39087969
-0.32577392 -0.88214898 0.41339767
0.062595256 0.60045302 -0.15382591
-0.14269781 0.0025509 -0.12788011
0.31427842 -0.50672901 -0.082767501
-0.080910847 -0.19175 0.20411232
0.2370975 -0.13132106 -0.093580738
0.34418702 -0.22454627 -0.016056307
-0.035557091 -0.19174999 0.33309716
0.31495026 -0.69964564 -0.072208002
-0.095172256 0.61308777 -0.09551134
-0.10254151 0.18652976 -0.14349338
0.014252858 0.32817662 -0.12703502
0.296619 -0.52375513 0.38629079
-0.26292303 0.28497413 -0.13274676
0.22106959 -0.19175 -0.029458661
0.010787834 0.67589879 -0.24971208
-0.23626606 -0.14968351 -0.12822425
-0.099374905 0.09033151 -0.1836316
0.32043457 -0.73639137 0.36819801
0.28776222 0.022812653 -0.057007112
0.031143539 0.12857756 -0.20175266
0.34327164 -0.27777201 0.28130215
-0.22810592 0.744461 -0.18536195
-0.28717238 0.29491556 -0.070680194
0.31562591 -0.12990862 -0.094192319
0.24247068 -0.27777201 0.25079539
0.27111515 0.46980691 -0.13314694
0.30312106 -0.018831581 -0.065886259
0.031623214 -0.2358876 0.41576499
0.33580703 -0.217663 0.32308519
0.26589844 0.31202409 -0.056585222
0.033908151 -0.033365123 -0.13200863
0.34138268 -0.28374362 -0.060428001
-0.30990466 -0.30952585 -0.060557999
0.040883902 0.46513173 -0.13716738
-0.010267873 0.50020301 -0.13636477
0.25877011 0.60045302 -0.088552646
-0.091455303 -0.1954101 0.37612289
-0.14302364 -0.27777201 0.38296118
0.33163536 -0.40530705 -0.107995
-0.276416 -0.32993752 -0.11487105
-0.24644995 -0.26111808 -0.17962524
-0.31890619 -0.21162762 -0.0038224384
0.11086618 -0.19175 -0.034783959
-0.23575287 -0.27777201 -0.028217016
0.33240601 -0.35086387 -0.078926228
-0.0067640981 0.17296557 -0.13367632
0.33240601 -0.45615274 -0.073467605
-0.14873894 0.39785591 -0.20238194
0.0063051647 0.17711842 -0.20453513
0.053167176 0.4016397 -0.17360955
-0.1224083 -0.087214045 -0.20340091
-0.32398397 -0.774068 -0.075264663
0.010983959 -0.21820268 0.40814319
0.16796371 -0.23714933 -0.21680889
-0.0079028774 0.65396547 -0.24890059
-0.17036164 0.43103063 -0.15114856
-0.14978981 -0.27777201 -0.13992636
0.27159944 0.23196706 -0.13321067
0.30716217 -0.62144899 -0.072208002
-0.25083882 -0.24046811 0.41576499
-0.020059699 0.54889303 -0.1485012
-0.0071238875 -0.27777201 0.32116699
-0.043943584 -0.19175 0.21302505
0.29214019 0.20653224 -0.1301571
-0.29704642 -0.88214898 -0.1134813
-0.16570494 -0.16646805 -0.14291877
-0.16500232 -0.27777201 -0.040288359
-0.22677833 0.63587457 -0.030197278
0.24017191 -0.053212669 -0.07983087
0.17751399 0.51700562 -0.16366577
0.28483799 -0.28150094 -0.097016826
0.04250101 -0.20773719 -0.21899234
0.1081783 -0.27777201 0.27969792
-0.20893723 -0.27777201 0.12200645
0.080455519 0.744461 -0.16057645
0.17614053 0.45916459 -0.10732181
0.33240601 -0.45218074 0.39840618
0.18653113 -0.090353571 -0.12347606
0.060647856 0.60045302 -0.14293203
0.11249085 0.55918849 -0.14858769
-0.28622082 0.27316344 -0.11915592
-0.0056356951 0.053674877 -0.13281047
0.23526672 -0.27777201 0.042783096
0.0046821199 0.071633719 -0.12829445
0.27274945 -0.27777201 0.2888267
0.13656099 0.28396538 -0.09921509
-0.29452395 -0.30780926 -0.060557999
-0.10419722 -0.19175 -0.11932732
0.053610519 0.70017523 -0.10751151
-0.24770361 0.28524402 -0.056063585
-0.12435339 0.31027791 -0.12809567
-0.24961683 -0.11444794 -0.13278419
0.1695773 0.0051256865 -0.10228581
-0.12723619 0.51270562 -0.20453167
-0.12212144 -0.055160448 -0.12896572
-0.29277584 -0.55704176 -0.108126
0.15313077 -0.25198087 0.41576499
-0.32398403 -0.65011144 0.39518812
0.27087939 0.65903115 -0.17906529
0.22570664 0.744461 -0.049592428
0.296619 -0.41028136 0.38883489
-0.28819701 -0.75604171 0.39158046
0.11062726 -0.0079429857 -0.13268229
-0.31899279 -0.38128197 -0.108126
-0.096794263 0.255485 -0.15484658
-0.16721225 0.10099267 -0.18736398
0.12231319 0.19962516 -0.10777933
0.17008036 -0.19175002 -0.071093276
0.16655749 0.56096905 -0.10090053
0.23821908 0.5394972 -0.10392021
-0.0023333491 -0.1749443 -0.1311781
-0.10618106 0.36098602 -0.19349708
-0.25250229 -0.27777201 0.32316419
0.24832289 0.60045302 -0.13955685
-0.22203359 0.22912593 -0.1139183
0.11720189 -0.21263209 -0.21522051
0.30799675 -0.49464291 0.40090555
-0.25351009 -0.20416108 -0.14396282
0.0073691588 0.56830245 -0.20467514
-0.12914611 0.31502014 -0.20478299
-0.25020227 -0.081686087 -0.13286123
0.23446313 -0.27777201 0.012845147
-0.15043117 0.083135813 -0.13056655
-0.059177496 0.73146904 -0.24518278
0.12045613 0.57827896 -0.10987362
0.34418699 -0.26840669 -0.088554278
-0.23632172 -0.19174999 -0.070279807
-0.24216515 0.40344918 -0.13073511
-0.32511365 -0.27777201 -0.10342681
-0.0095029958 -0.12847804 -0.19683813
0.13888212 0.744461 -0.12985799
-0.0033811927 -0.27777201 0.30267471
-0.335765 -0.26403636 0.30759284
-0.1215017 -0.19175 0.36820918
0.057651788 -0.27777201 0.027948789
0.28491712 -0.070457704 -0.056277022
0.1645861 -0.27777201 0.2504819
-0.04287136 -0.19174999 -0.11965828
0.17046429 0.43509281 -0.10296641
-0.023803433 0.048375193 -0.16057386
0.1516968 -0.19175 0.32953417
-0.32739031 -0.21766675 0.11956391
0.30019814 0.2412152 -0.12533438
0.34381592 -0.22336386 0.3068006
-0.0029948875 -0.27777201 0.12047549
0.15058105 -0.27777201 -0.16509795
0.31469628 0.062974811 -0.087132998
0.34418699 -0.84742969 0.36674333
-0.0081420587 0.60045302 -0.16007987
-0.335765 -0.32756805 0.37382993
0.21281308 -0.27777201 -0.1240981
0.040464196 0.60914499 -0.24798244
0.011449322 -0.19175 0.076500505
-0.28582057 -0.27777201 -0.0010728063
0.33240598 -0.67849034 0.37879908
-0.039011519 0.69831479 -0.24708748
0.12207495 0.6597746 -0.23705247
-0.323984 -0.64001828 -0.10421126
-0.17154686 0.11551056 -0.15400958
-0.019229602 0.39221865 -0.14656118
-0.24231517 -0.27777201 -0.010562956
-0.085446157 -0.27777201 0.18970321
0.15771104 -0.093557939 -0.09780021
-0.28319526 -0.27777201 0.20912081
0.29251468 -0.27777201 0.31888223
-0.15721434 -0.19175 0.15887165
0.11058703 0.28485778 -0.13914391
-0.3227798 -0.41014189 -0.072338998
0.15640539 0.24437226 -0.17450392
0.27131325 -0.27777201 0.022542302
0.34418699 -0.24901058 0.26865256
0.065437086 -0.19175 -0.039259739
-0.21895029 -0.27777201 -0.15353513
-0.15642899 -0.1553691 -0.13390334
0.12019454 -0.27777201 0.25487953
-0.11848585 0.70243257 -0.088527754
-0.16873929 0.14653438 -0.18501467
0.069094315 -0.21834829 0.40834779
0.34418696 -0.24264184 -0.08494705
-0.10734218 0.48017636 -0.19457179
-0.0013053627 0.60045302 -0.17564283
0.30695316 -0.27428296 0.41576499
-0.29467613 0.35479251 -0.10033412
0.034268044 0.57981247 -0.20045827
-0.26955187 -0.19175 0.025222771
0.054098058 0.61618793 -0.24718785
0.28483799 -0.84829563 0.35654366
-0.098099694 0.32644129 -0.15169463
-0.024119943 -0.19175 0.31201965
0.30846024 -0.63979435 -0.072208002
-0.32680985 -0.27777201 -0.022987112
-0.10331184 -0.095447972 -0.14248961
0.050265912 -0.19175 0.21772633
0.068712026 0.744461 -0.15289727
-0.28819701 -0.70871663 -0.1066801
0.296619 -0.54794717 -0.098215103
0.15844886 0.032590829 -0.17423482
0.2811963 -0.13224648 -0.13319045
0.17546424 0.18945524 -0.16532934
0.0070806071 -0.19175 0.018072389
-0.22087067 -0.10470841 -0.077485561
-0.323984 -0.51264828 0.3884792
0.28184092 -0.19175 0.120545
-0.27982208 0.15403581 -0.12528346
-0.19406235 -0.19175 0.11317172
-0.29603422 -0.52802259 -0.108126
-0.10271352 -0.27777201 -0.21720749
0.075038567 -0.27777201 -0.11985438
0.044052646 0.20229504 -0.19224136
-0.075920165 -0.19175 0.037735939
0.29708159 -0.48667717 -0.074232966
-0.022773162 -0.27777201 0.13782845
0.27197808 -0.27777201 0.23085971
0.15255478 0.28851441 -0.097121686
-0.021509983 -0.094894737 -0.15200204
-0.085193984 -0.22159882 0.41291428
0.33142689 -0.52312726 -0.072208002
-0.25224084 -0.19174999 -0.0069408938
-0.11147197 -0.27777201 0.24155562
-0.31547439 -0.27777201 0.39548939
0.0047089756 -0.19175 0.12491809
0.29530838 -0.20475022 -0.12311862
-0.28090286 -0.31099209 -0.060557999
-0.095461905 0.1981295 -0.16963148
0.051606461 -0.19970329 0.38215423
0.23771848 0.51718199 -0.10011612
-0.20831996 0.70939344 -0.043948241
-0.13391779 0.6386857 -0.22949381
0.30924696 -0.84703803 -0.10663555
0.34418696 -0.31898755 0.39084405
0.24289101 -0.14809038 -0.073980272
0.07494086 -0.27777201 0.080315687
0.051751688 -0.13393651 -0.17899255
0.33240601 -0.69504333 -0.10179356
0.02117892 -0.19175 -0.17046756
0.22224119 -0.19175 -0.046757318
0.31068707 0.13433313 -0.075524583
-0.10184746 0.0082150996 -0.14439778
0.30821159 0.10777877 -0.11700481
-0.29005608 0.67391551 -0.15697005
-0.10595132 -0.27777201 -0.10313495
0.27074367 0.744461 -0.13188083
-0.323984 -0.51252049 -0.097036839
-0.099893041 -0.19175002 0.024765044
-0.02450962 0.312787 -0.16594034
0.15949941 0.07479699 -0.17409647
-0.014698833 0.28759637 -0.1919596
-0.29524213 0.42624021 -0.096036062
-0.29460496 0.36438265 -0.10087454
0.11957984 -0.19175 0.22440103
0.27361375 0.19823666 -0.055501517
-0.24514231 0.45277137 -0.056627531
0.10967077 -0.19174999 0.14771192
-0.015557343 -0.27777201 -0.14011057
-0.026854031 0.70391881 -0.24779603
0.14552581 0.74446094 -0.15817711
-0.11746944 0.60045302 -0.11474112
0.25298807 0.18189317 -0.12575153
-0.17278092 -0.062996626 -0.17300954
0.17451288 0.60045302 -0.077086404
-0.31117105 -0.63402748 0.40398499
0.31538659 0.37953329 -0.096603215
0.019824089 0.65223491 -0.24918541
0.28242591 -0.19287975 0.37256816
0.26402277 0.205625 -0.057362132
0.23220775 -0.19175002 0.027961507
0.30419791 -0.83046484 0.36819801
-0.2148249 -0.20924962 -0.17321353
0.17087151 0.744461 -0.11124982
0.15045795 -0.17302036 -0.17528716
-0.17241657 0.073159434 -0.15646955
-0.058501109 -0.22228849 0.41388321
-0.18093914 -0.27777201 0.16630751
0.19003871 0.74446094 -0.14034855
0.31715348 0.66842759 -0.084124938
0.30821833 -0.61179066 0.36819801
0.050136991 -0.15287998 -0.14972574
0.33240601 -0.6327486 -0.091291368
0.15561245 -0.27777201 -0.1522247
0.25609505 -0.27777201 -0.057186067
0.27385533 0.55815101 -0.13350755
0.041910112 -0.19174999 -0.023289472
0.002173394 -0.19175 0.29786652
-0.323984 -0.76288289 -0.07396327
0.049671367 -0.16762732 -0.14860179
0.23809117 -0.10454524 -0.086029753
-0.07774689 -0.27777201 0.38225037
0.30428755 -0.10443778 -0.12211807
-0.32262522 -0.27777201 -0.039839573
-0.24431692 -0.21813071 0.4080421
0.24128631 0.20528594 -0.077140801
-0.22894782 0.188261 -0.065987058
-0.031577203 0.6007477 -0.10781891
0.28483799 -0.29313198 0.37343922
0.12163637 0.44899562 -0.10833544
-0.2941961 -0.34246397 0.40908134
-0.29409 -0.14299709 -0.084018439
0.05051972 0.54482442 -0.15064962
-0.11686118 0.12873188 -0.20110291
-0.28266707 -0.88214898 -0.085923001
-0.20122463 0.60622478 -0.20553963
0.12364632 -0.19175002 0.15670031
0.13160497 -0.27777201 0.12013581
-0.16772185 -0.27777201 0.17636061
0.21608794 0.60045302 -0.099672779
-0.17094576 -0.0056352485 -0.17968905
0.13996655 0.48014405 -0.097980812
0.32147151 -0.83132964 0.40398502
0.296619 -0.63612473 -0.088696569
-0.1071139 0.66502684 -0.091934219
-0.088816456 -0.19175 -0.048518121
-0.28819701 -0.82907033 -0.087133557
-0.29467347 0.38578331 -0.10035417
0.11090087 -0.19174999 0.21164066
-0.323984 -0.70937514 0.39347792
-0.21812013 -0.10840534 -0.10444411
-0.323984 -0.79642767 0.39774263
0.28546163 -0.19175 0.34352118
-0.27883554 -0.27777201 0.051407177
0.04517981 -0.11441632 -0.19077235
-0.15105961 0.050486073 -0.13082688
0.34418699 -0.25359866 0.38346267
0.289296 0.12946346 -0.057642341
-0.020823317 0.04683128 -0.15034449
0.31757808 -0.20468733 0.16573313
-0.30443376 -0.66032028 0.40398499
0.13461965 0.17977852 -0.17211318
-0.16702282 0.12301819 -0.14463633
0.26232779 0.42022169 -0.13091338
0.15639266 0.10056686 -0.097626723
-0.2726683 -0.27777201 0.038540486
0.022087948 -0.040586561 -0.12792601
-0.027472986 -0.27777201 -0.0025918856
-0.30758646 -0.72615796 -0.072338998
0.012307279 -0.27160439 0.41576499
0.16442952 0.518435 -0.17211351
0.24447086 0.14816552 -0.1170567
0.30450094 -0.39151466 0.36819804
0.28885391 0.37901178 -0.13151851
-0.22141385 -0.19175 -0.04909867
-0.18818788 0.74446106 -0.20296246
0.31502053 -0.67169064 -0.072208002
-0.28942958 0.33542195 -0.073621951
-0.23310244 -0.19175 0.19993135
-0.2349603 0.043429106 -0.061373655
0.29450724 0.70782554 -0.16541553
0.32665753 -0.26539621 -0.13283496
0.14498866 -0.19174999 0.28888214
0.30255169 0.744461 -0.15778676
0.27910107 -0.27777201 -0.13268356
-0.012567954 0.13095415 -0.13812962
-0.31799284 0.74446094 -0.11035883
0.296619 -0.75047213 -0.098652378
0.1691958 0.31374615 -0.1019935
0.296619 -0.69327974 0.38970351
-0.24507885 0.62607777 -0.18426029
-0.0037653111 0.27252662 -0.13177133
-0.29522234 -0.097140729 -0.096186116
0.12515214 0.072821334 -0.16653144
-0.323984 -0.77892143 -0.078904308
0.296619 -0.57158017 -0.075920798
-0.13368438 -0.27777201 0.035887577
0.12355047 -0.27777201 -0.085207544
0.11310956 0.5108481 -0.15008119
0.11191393 0.1901249 -0.12493692
-0.096975602 -0.15072899 -0.1778391
-0.26355448 0.70779967 -0.17358692
-0.10219367 -0.025159515 -0.14394666
-0.037603185 -0.27777201 0.36624151
0.28865731 -0.86828846 -0.060428005
0.11529937 0.45823532 -0.11676484
0.30363804 0.60045302 -0.12574109
-0.26871312 -0.27777201 -0.069608971
0.24566558 0.58706295 -0.070364296
-0.057536289 0.60045302 -0.13005012
0.26910561 0.033097252 -0.05609519
0.23670501 0.7345528 -0.19748066
0.22280523 -0.19175 0.36561081
0.29255354 -0.82325399 0.37565148
-0.20087409 -0.27777201 0.12729104
0.24649441 0.32002887 -0.11969388
-0.0042944229 0.60987616 -0.10940825
0.22350633 -0.27777201 -0.14929578
-0.14727165 0.10701142 -0.20298986
-0.098744251 0.39082372 -0.18210904
0.25818628 -0.14364538 -0.059779659
0.25654235 0.22458299 -0.12847841
-0.052674066 0.60396278 -0.24629118
-0.21823743 0.17563689 -0.10475247
0.0055373413 0.62440294 -0.109981
0.29971963 0.70762014 -0.060723104
0.26144397 0.4609744 -0.058430314
-0.11455875 -0.05276946 -0.20010911
0.020508604 -0.1661126 -0.12771818
-0.18997097 0.6887058 -0.21039671
-0.30858046 -0.34963053 0.36819801
0.14756221 0.15940082 -0.096981287
0.18064086 0.35650143 -0.11254069
0.18556607 0.13383852 -0.12114587
0.29106271 -0.27777201 0.2739405
0.28214562 0.051086195 -0.05591204
0.34051061 -0.27777201 -0.11928189
0.034734271 0.27421141 -0.20016725
0.17370747 0.21879041 -0.16667753
0.037524909 0.42213088 -0.13459001
-0.016719021 -0.27777201 0.090425111
0.30569759 -0.42836899 0.36819801
0.31034428 -0.19953819 0.12404118
-0.21907513 0.34731323 -0.10677506
-0.31758755 -0.27777201 0.31960899
0.17592227 0.25835583 -0.10715434
0.31244165 -0.078322485 -0.10921691
-0.11605389 0.65064955 -0.23484495
-0.23287642 0.36907914 -0.12562336
0.17177893 0.744461 -0.12934117
-0.32743371 -0.27777201 -0.077043235
-0.23614669 0.071358308 -0.12813267
-0.30470127 -0.80200696 -0.072338998
-0.12403875 0.60045302 -0.19994111
-0.29073748 0.015613332 -0.075923778
0.26469237 -0.27777201 0.2740539
-0.28067073 0.57139605 -0.063963644
0.15268171 0.37203541 -0.097138397
0.33240601 -0.77985489 0.37021378
-0.14337811 0.43007162 -0.12796971
0.3341862 -0.88189554 0.41576499
-0.17159919 0.67586935 -0.21820635
-0.22610754 0.52255815 -0.069345325
0.023265138 -0.19175 0.29020455
0.10184368 -0.21023864 -0.21451572
-0.28819701 -0.36259454 -0.10638353
0.075518012 -0.27777201 0.02667883
-0.048746735 -0.19175002 0.13064042
-0.21982656 -0.028760973 -0.10858943
-0.052761659 0.744461 -0.13026258
-0.31739396 -0.74418402 0.36819798
-0.17411259 -0.27777201 -0.1925289
-0.32806569 -0.21814749 -0.042391859
0.26114389 -0.070865728 -0.058554597
-0.1023291 -0.16077882 -0.18847714
0.34416735 -0.22361401 0.18615052
-0.25813696 -0.27777201 0.1999836
-0.16016947 0.39944017 -0.13677353
0.034503385 -0.093862958 -0.13227159
-0.039745383 -0.27777201 -0.15800767
0.24851504 0.53223056 -0.066658221
-0.17328252 -0.04462333 -0.16919775
-0.12292257 0.27746645 -0.20361397
-0.27953783 -0.18549226 -0.063094489
-0.099955693 -0.22347945 0.41555631
0.34418699 -0.25551829 -0.04430908
0.34418699 -0.25474811 0.023918621
-0.31701401 -0.79662406 -0.108126
0.036044221 -0.27777201 0.061004456
0.16800395 -0.2635003 0.41576499
0.11591131 0.56519186 -0.15633531
0.1466656 0.45002028 -0.17503345
-0.17264694 -0.21023363 -0.19292328
0.02893324 -0.27777201 -0.19320816
-0.14934027 0.57876265 -0.20213279
-0.12615585 0.5445689 -0.2043895
0.23786953 0.16424231 -0.10126406
0.038227655 -0.19175 0.098667726
0.24822633 0.49870166 -0.06702698
0.17253675 0.051990151 -0.16757599
-0.335765 -0.24659051 0.24789275
-0.27978235 -0.19175 -0.079654142
0.26806581 -0.19175 0.069764756
0.16019225 -0.27777201 -0.16157639
0.028034896 -0.27777201 0.40816128
0.010683686 -0.27777201 0.35887477
-0.17855181 0.73723918 -0.06162696
0.0061588027 -0.19174999 0.22616985
-0.30352521 -0.20067918 0.31362551
0.34418699 -0.24067125 -0.1174967
0.30773383 -0.87390363 0.356417
0.26944762 0.744461 -0.03332936
0.12479126 -0.044641212 -0.16625448
0.036137398 0.20627218 -0.13352537
-0.18355227 -0.27777201 -0.12162387
-0.31357193 -0.27777201 0.061613634
0.34418702 -0.26066417 -0.056826536
0.32747424 -0.69529593 -0.072208002
0.24317205 -0.17183746 -0.11536399
0.17874548 -0.14965968 -0.11007091
0.16210619 0.41706324 -0.099056497
0.29532525 -0.22518243 -0.15617666
-0.15777285 -0.19175 0.2948184
-0.24754158 -0.015732177 -0.056084909
-0.079960123 -0.19175 -0.16855522
-0.017277967 -0.19175 0.22761473
-0.323984 -0.72662401 -0.090007693
0.12878838 0.060930848 -0.16932198
-0.1351732 -0.23654857 -0.22410806
-0.16209644 -0.20436434 0.38870233
0.24911982 -0.26615623 0.41576499
-0.23575962 0.25181267 -0.12783566
-0.323984 -0.80194056 -0.078936301
-0.24972989 0.30486333 -0.055796944
-0.15922722 -0.19175 -0.16230024
-0.11199204 -0.027759239 -0.19813967
-0.068419911 -0.19175002 -0.044599026
0.044078689 0.55850822 -0.19220741
0.10320418 -0.19175 0.22184578
-0.10881405 0.60045302 -0.21917266
0.19701889 -0.27777201 0.30096555
-0.12797976 0.71922749 -0.085250869
0.0030837329 0.054022875 -0.20368202
0.33068416 -0.52973402 0.40398499
0.29916301 -0.78443629 0.40398502
-0.30483654 -0.50672901 -0.088087052
0.23814264 -0.031705387 -0.085638613
0.03092907 0.744461 -0.23712736
-0.24915914 0.028318629 -0.13272396
0.068308376 -0.21844168 -0.23213401
0.3254118 -0.72200465 -0.072208002
0.34418702 -0.24636813 -0.0081496984
0.23719907 0.36001554 -0.092808984
-0.070100844 0.61911201 -0.24325587
-0.26579905 0.43017155 -0.13236825
-0.12502235 0.42143717 -0.20424035
-0.335765 -0.27215776 -0.029625803
-0.036242682 -0.20206416 -0.21088256
0.2642037 -0.037266925 -0.13169061
0.24846584 -0.27777201 -0.078709893
0.32240292 -0.20812173 0.12774554
-0.25831023 0.36524603 -0.055242188
-0.31679454 -0.21012452 0.24508446
-0.32398397 -0.71641523 -0.079619057
0.1152258 0.54379785 -0.11694243
0.29581684 -0.342464 0.36339626
-0.29402331 -0.342464 -0.099380858
0.33913013 -0.27777201 0.01006262
0.16047433 0.47699755 -0.098380461
0.14708412 0.60045302 -0.17128821
0.32245249 -0.80098957 -0.072208002
0.30645192 -0.342464 0.3882511
-0.3186931 -0.21783106 -0.12233883
-0.29402572 -0.05787693 -0.083863221
-0.082413189 -0.27777201 0.25227922
0.31309915 0.034338444 -0.081348643
-0.323984 -0.80203986 0.36842665
0.085031979 -0.27777201 0.081930667
0.11846767 -0.25734067 0.41576499
-0.23400034 -0.13884002 -0.062110245
-0.07747671 0.60045302 -0.17183328
0.31956273 -0.20610002 0.28954673
-0.27323472 -0.19175 0.14342493
-0.086037643 0.64413613 -0.098247617
0.31433326 -0.14642476 -0.084376328
0.29234856 0.31626779 -0.0589066
0.3342213 -0.27777201 0.10328966
0.23420672 0.744461 -0.10823203
0.296619 -0.41384929 -0.074685968
0.14602616 0.68368226 -0.23090157
0.28680429 0.59667897 -0.056610372
0.16366144 -0.19175 0.20750153
-0.28315729 0.74446106 -0.075024456
-0.15895106 -0.058811389 -0.13583858
0.15209438 0.53081614 -0.097061105
0.32353863 -0.76194119 0.40398496
0.18363287 0.36541826 -0.1556538
0.13898125 0.045209616 -0.098212436
0.045525514 -0.27777201 0.0035743192
0.18288748 -0.19175 0.018389948
-0.25286812 0.6966266 -0.02039624
0.29775682 -0.27777201 0.29767406
0.045816496 0.12929446 -0.14267342
0.32346025 -0.88214898 -0.06586431
-0.095436297 -0.178385 -0.1694371
0.26193053 0.65011853 -0.18423504
0.11063038 0.40582544 -0.13947336
0.018753953 0.049838811 -0.12748729
0.13123299 0.50057602 -0.10142231
0.24771303 0.023718923 -0.067695953
0.32747731 -0.21173376 0.27975658
0.071687095 -0.19175 -0.065507263
0.25295001 -0.27777201 0.14610437
0.1612314 -0.19175 0.30784518
0.19051483 -0.27777201 0.088446125
0.26620349 -0.27777201 -0.073543333
0.11590771 0.29851812 -0.15633062
0.028817236 -0.19175 0.27460635
-0.23737201 -0.19175 0.068218306
-0.29425514 0.22756305 -0.085065171
0.30209243 0.27537894 -0.12388088
0.085497126 -0.19174999 -0.11484973
-0.32164857 -0.47204739 0.40182942
-0.21424419 0.65289176 -0.19992042
-0.1276637 -0.1719809 -0.20458794
0.26311207 -0.19175 -0.081522033
-0.14680731 0.19507362 -0.12906553
-0.20286277 0.60045302 -0.2029233
0.33356401 -0.88214898 0.36361852
0.022781909 -0.19175 0.13823903
-0.14931278 0.60045302 -0.15762837
-0.021522745 -0.19679078 -0.20431928
0.11062877 0.3342869 -0.13946107
0.11196492 -0.12166233 -0.12481384
0.21518885 -0.19641218 -0.15704873
0.31246734 -0.6243937 0.40398499
0.29777697 -0.19175 -0.11942127
0.0036834825 0.58133119 -0.12868552
0.048212189 0.49375632 -0.18682036
0.29297188 0.744461 -0.085819706
-0.13056321 -0.27777201 0.28258786
-0.023936057 0.39736575 -0.16158171
-0.29220834 -0.82919037 -0.060557999
0.30300114 0.61900294 -0.15984793
-0.13565117 0.60045302 -0.21699549
-0.1100871 0.45222205 -0.19667798
0.23866101 0.53516501 -0.10549999
-0.19995622 0.744461 -0.069775403
0.33301082 0.60576808 -0.10541058
0.13695443 -0.27777201 0.21616952
-0.28819704 -0.75670725 0.36824366
0.025341798 0.31118897 -0.20415613
-0.1780787 -0.27777201 -0.15742582
-0.30400363 -0.73720002 -0.072338998
-0.020120043 -0.19175 -0.12811062
0.19076104 -0.19175 -0.031729996
0.29704314 -0.72638237 0.36819801
-0.33205551 -0.28622782 -0.060557999
-0.31624395 -0.27777201 -0.12690021
0.13512179 -0.27777201 0.15158111
0.31280807 -0.86339396 0.356417
-0.26229629 -0.07339441 -0.13282923
-0.095948018 0.36779225 -0.17332283
0.030398712 -0.19175 0.043960422
0.046047784 -0.12512165 -0.14297485
0.28483799 -0.3269628 -0.078366257
0.34418699 -0.86894661 0.36088651
0.33240601 -0.82261801 0.3757436
-0.31108135 -0.82660627 -0.072338998
0.29817492 -0.57249463 -0.107995
-0.28495324 -0.11515763 -0.067788109
0.24776214 -0.19175 0.14383505
-0.17288969 0.4054628 -0.16006513
-0.26566619 -0.27736801 -0.16852367
-0.10610183 -0.19175 -0.12925835
-0.065626398 -0.27777201 -0.07534077
0.18353221 0.70832336 -0.06846036
0.25812972 -0.27777201 0.38325736
0.25021484 -0.04990197 -0.0653539
-0.092604384 -0.27777201 0.24874225
-0.17381832 0.70748997 -0.064361498
-0.11840641 -0.27777201 0.024499051
0.296619 -0.34522453 -0.073257849
0.25043169 0.52663535 -0.12379025
0.23732981 0.21171694 -0.097162545
-0.017599344 -0.19807851 0.37987161
-0.22303694 -0.19175002 0.04487377
-0.3171159 -0.21681125 -0.12172727
0.26825616 -0.19175 -0.10123172
-0.075355388 -0.27777201 -0.039265096
0.296619 -0.66713643 -0.080946788
-0.0085757896 0.21187226 -0.13506642
-0.036157601 -0.27777201 -0.045579053
0.33304167 -0.21569459 -0.014578834
-0.1562497 -0.19175 0.29226345
0.12652695 0.22957623 -0.16758649
0.2429155 0.081805512 -0.11502963
0.31138062 -0.78737915 0.36819801
0.2810787 -0.27777201 0.37992296
0.28688323 -0.82325399 0.38010901
-0.28800267 -0.020826541 -0.071762308
0.12249461 -0.27777201 -0.15957548
-0.12269419 -0.19175 0.36420697
0.18277173 -0.19175 0.17591614
0.27900672 0.11274216 -0.13347857
-0.20678206 -0.27777201 0.056317322
-0.11712017 0.60045302 -0.22329405
0.29308379 -0.14660011 -0.12976618
-0.18949032 -0.27777201 0.14796025
0.095405273 -0.19175 0.22428976
0.0023342781 -0.19175 -0.089444965
0.23823908 0.6756624 -0.034181584
-0.28085247 0.31621766 -0.12449293
-0.22132513 0.42595294 -0.076388307
-0.092196733 -0.27777201 -0.10899118
-0.10509417 0.60806054 -0.23708293
-0.335765 -0.22948089 0.22283353
0.34418699 -0.26248851 0.13203984
-0.17558989 -0.19174999 0.015633203
-0.29384813 -0.55150092 -0.108126
0.30791858 0.72854608 -0.15618445
-0.28696054 0.058032222 -0.11819188
0.18602711 -0.27777201 0.16205442
-0.32697949 -0.28663209 0.356417
0.32127443 -0.45805001 0.38260955
0.23756392 0.61759901 -0.19710994
-0.23244874 -0.069761403 -0.12529522
0.34104604 -0.34172317 0.41576499
0.16943759 -0.20383662 -0.18734287
0.18758929 -0.19174999 0.12137331
-0.11711429 0.32606721 -0.1310395
-0.049953323 0.65476048 -0.10519139
0.24046898 -0.19175002 -0.077622436
0.16744612 0.39686066 -0.10126866
0.15621239 -0.11785254 -0.17452934
-0.1285374 0.24139687 -0.12754469
-0.16631493 0.32106507 -0.18853359
0.30139372 0.60045302 -0.10796706
0.088087037 0.61118817 -0.10142918
-0.335765 -0.2262072 -0.040159333
0.15038809 0.58509207 -0.17529634
-0.034869418 0.60045302 -0.20975396
-0.26399425 -0.22594126 -0.16948959
0.30138272 -0.86754644 -0.060428001
0.2273594 -0.19175 -0.075170711
-0.32398403 -0.75455517 0.3904134
0.31455976 -0.342464 0.36599976
0.25062943 -0.077315196 -0.065035783
-0.3207182 -0.86213857 -0.060557999
-0.12249722 -0.089036487 -0.12881008
0.0058609215 0.59053528 -0.20447667
-0.13220975 0.37688607 -0.20518616
0.29460481 -0.19175 0.26509216
0.16183223 0.50143683 -0.17318922
-0.063671239 0.6491735 -0.10277123
0.15849906 0.62118959 -0.22716531
-0.046608031 -0.27777201 -0.068112768
0.16628368 0.73352265 -0.075973414
0.088390723 -0.27777201 0.16706122
0.024511458 -0.19175 -0.063708231
0.28483799 -0.29053801 -0.10785189
0.33240601 -0.64959693 -0.088854715
0.014710115 0.53734779 -0.20564114
-0.071252815 0.73502284 -0.10143366
0.233978 0.60045302 -0.1486935
0.24060908 0.046395607 -0.11020243
-0.3088156 -0.20444497 0.38168663
-0.092745483 0.60045302 -0.22081432
0.023298746 -0.27777201 -0.17596595
0.00042050972 0.53527731 -0.20257874
-0.20850417 0.62574017 -0.20239779
-0.24128093 0.70540553 -0.019393263
0.27938724 0.20345651 -0.1334285
0.28158265 0.18627296 -0.055837907
-0.17283975 -0.036300268 -0.17256249
0.28751737 0.744461 -0.15184404
0.296619 -0.67168957 0.39559981
-0.32398397 -0.55196631 0.37659222
-0.30199495 -0.27777201 0.04287228
0.14141065 0.68194246 -0.23228416
-0.30456972 -0.40932667 -0.108126
0.30726901 0.58494532 -0.11823304
-0.21698062 0.33159769 -0.092804961
0.28483796 -0.32948315 -0.1066235
0.075726412 0.65498739 -0.24522865
0.34418699 -0.84185642 0.39039502
-0.10768127 -0.19175002 -0.14411789
0.24166411 -0.17054179 -0.11274915
0.076580994 0.60045302 -0.14538974
-0.24606436 0.54125887 -0.13231671
0.28483799 -0.28349075 0.37009081
0.31510183 0.32336891 -0.098765604
-0.28479069 0.60989499 -0.063246161
0.31352004 -0.82325399 0.38298333
0.19244328 -0.27777201 0.19719231
0.1430015 0.74446106 -0.16701955
0.18420129 0.46369147 -0.11785064
-0.11375313 0.072248325 -0.19949093
-0.02252008 0.24615207 -0.1544403
-0.15444009 -0.27777201 0.30111098
-0.11146359 -0.27777201 0.33829796
0.30692965 0.15738249 -0.11867525
-0.043716982 -0.27777201 0.069073945
0.19576329 -0.27777201 0.26847315
0.11888178 -0.27777201 -0.038453586
0.14794269 0.066862687 -0.096931219
-0.052267298 0.64774907 -0.10478315
-0.0068585104 0.6667046 -0.24896145
0.12052 0.062240478 -0.10979036
-0.09559311 0.744461 -0.16044046
0.20078135 0.60045302 -0.17921706
-0.23630956 0.18962815 -0.060338371
-0.25183815 0.55692112 -0.05551951
-0.14331862 -0.27777201 0.11539434
-0.0024544774 0.71216053 -0.10951545
-0.24621785 -0.27777201 0.40746844
-0.28019696 0.17713001 -0.12499586
-0.13301942 -0.27777201 -0.11288565
0.31116959 0.29227367 -0.1122883
0.21422836 -0.19175 -0.12669457
-0.024815803 -0.27777201 -0.11766033
0.32536608 0.60458666 -0.095148876
0.18782397 0.744461 -0.085911199
-0.28819701 -0.67939717 0.37421036
0.11043242 0.066055097 -0.13796899
-0.10250883 0.60045302 -0.16797793
0.30917209 -0.60595936 0.40398502
-0.00057971524 0.20259614 -0.20216438
-0.31016484 -0.33957499 -0.10042346
0.23526284 0.6845054 -0.1981031
-0.21680562 -0.17467156 -0.094133735
-0.28819701 -0.75657713 -0.085342839
0.33240598 -0.69063979 -0.095568657
-0.12648109 -0.1964889 0.37763849
-0.29813889 -0.85420132 0.356417
-0.12726066 0.60045302 -0.13186252
0.23560071 0.63914651 -0.19795725
-0.29474133 -0.76081079 -0.072338998
0.33280078 -0.2823205 0.356417
0.036104262 -0.19175 0.0093440935
0.30615991 0.64819938 -0.069368005
0.31336668 0.40548259 -0.10698344
0.17623514 0.083498359 -0.10739439
0.28959957 0.7172097 -0.16825065
-0.26418304 0.36034298 -0.13258092
0.29352677 -0.342464 -0.072781548
0.058861177 -0.19174999 0.16225886
0.28483799 -0.32631695 0.37142032
0.34418699 -0.23431006 0.017537408
0.31582332 -0.33957499 -0.092577025
0.27527457 -0.064086214 -0.055282801
0.12335619 0.30874765 -0.16515316
0.1178741 -0.15354891 -0.15889332
0.32302687 -0.42787814 -0.107995
-0.2392303 0.6136356 -0.18763898
0.10925232 -0.19175 0.12115727
0.052726127 0.1649406 -0.15597564
0.17794189 -0.27777201 -0.010945115
-0.22238941 -0.045099493 -0.074190252
-0.30646279 -0.87400508 0.356417
-0.096569628 0.11474445 -0.17685898
0.16320039 0.20305903 -0.17262259
0.24705547 0.065107696 -0.12042508
-0.22957584 0.68907022 -0.19321635
-0.27379441 0.68153834 -0.16767132
0.26374853 0.1588224 -0.13150202
-0.17234607 -0.19175 0.031887792
0.29983535 -0.50672901 -0.10256023
0.2959179 -0.017557859 -0.12859212
0.17984243 -0.27777201 -0.20054661
0.17703922 0.28864548 -0.10801139
-0.09557566 0.31352842 -0.17049533
0.32055283 0.65496796 -0.14677204
-0.16936955 -0.19175 -0.12553324
-0.25113395 -0.27777201 0.13033623
0.34418696 -0.25663668 -0.077538386
0.1868453 0.061957754 -0.14789741
0.0057554189 -0.19174999 0.0020887926
-0.20435004 -0.22351724 -0.19956593
-0.26987368 -0.27777201 0.034601964
0.20218067 -0.27777201 0.27000079
0.2913253 0.72431529 -0.16725369
0.34418696 -0.26713401 0.3127785
0.16428527 0.19884086 -0.099959224
0.026595598 -0.27777201 -0.17948537
-0.26726803 -0.19175002 0.094446853
-0.01465085 0.08427117 -0.19202213
-0.31965014 -0.21215716 -0.10675072
-0.14486356 -0.17524886 -0.1282604
0.0092585403 -0.19175 0.1772552
-0.11004601 0.54523498 -0.19664645
-0.20041586 -0.19174999 0.20718116
-0.335765 -0.24811727 0.38148367
-0.023201387 0.21330583 -0.17653111
-0.0066625797 -0.27777201 -0.10828509
0.27023253 -0.27777201 0.038119618
-0.017003713 0.72982913 -0.10866788
0.018898513 -0.20004866 0.38263941
-0.013308629 -0.19175 0.20421837
-0.087573543 -0.27777201 0.026682734
-0.15606764 -0.19175 -0.16447695
0.042280901 0.72158098 -0.24787657
-0.17355932 -0.15242481 -0.1670942
-0.24494354 0.38335404 -0.056709878
-0.25964233 -0.10434639 -0.0554175
0.15554139 0.26580673 -0.17461771
-0.12712412 -0.13025287 -0.20451692
0.042172924 -0.19175 0.27128914
-0.17632997 0.61602491 -0.21628416
-0.29028687 -0.47224453 0.39616394
-0.060344819 0.744461 -0.19054693
-0.28819701 -0.80422509 -0.093131714
-0.10378186 -0.049034335 -0.14187714
-0.19545273 -0.21993636 0.41057876
-0.24659956 0.65813345 -0.18338178
0.29720268 -0.48780072 0.40268123
-0.2766965 0.38404921 -0.060914584
0.12704872 0.60045302 -0.20895548
0.1879189 -0.1765908 -0.12885135
-0.2568076 0.7344234 -0.025684241
-0.09533374 0.35219276 -0.16358969
0.24509832 -0.053899959 -0.11787442
-0.13841516 0.28418648 -0.12731613
-0.276416 -0.31801274 -0.060761742
-0.30937207 -0.20484108 0.035297196
0.20879924 0.63140184 -0.20952475
-0.2553257 0.60045302 -0.10947591
0.33240601 -0.42826587 0.36951411
-0.335765 -0.32023972 -0.078833759
-0.19985113 -0.19175002 0.066170201
0.31106648 0.71199548 -0.075954206
0.30101061 -0.51856661 -0.072208002
0.24273315 0.39940244 -0.11479197
0.24135843 -0.010923767 -0.076966777
0.018505244 0.21006471 -0.12745455
0.18454883 -0.27777201 -0.17971003
0.31895682 -0.61058205 0.36819801
0.30829725 0.27763218 -0.072084829
0.021337055 -0.19175 0.08542762
0.32715222 -0.58929205 0.36819804
-0.13760042 0.60045302 -0.089862004
0.30540621 -0.86204696 0.41576499
0.33084142 -0.84703797 -0.1024035
0.03899879 0.10190294 -0.19689506
-0.161872 0.65798342 -0.070622869
-0.28850031 -0.74680459 -0.108126
-0.19831023 -0.19174999 0.23474106
-0.2490029 0.60045302 -0.08506234
0.23148751 -0.20111361 -0.1566065
-0.3163729 -0.73123848 0.40398502
0.24126568 -0.27777201 -0.15550387
-0.08770147 -0.27777201 0.023891486
0.00058209896 -0.19175 0.10526681
-0.3035363 -0.27777201 0.13859206
-0.31663412 -0.28839904 -0.11990599
0.092724025 -0.19175 -0.032881372
0.059047803 -0.19174999 0.17115968
-0.11354789 0.087192237 -0.13291368
0.11855526 -0.1789659 -0.15978105
-0.29542211 0.12636523 -0.093926594
0.1762753 -0.19175 -0.069160648
-0.31209874 -0.25622261 0.41576499
0.296619 -0.78365189 0.39533216
-0.29424998 0.31737316 -0.085026026
0.30026817 -0.46916756 0.39645293
-0.10707441 0.2858488 -0.13788159
0.31194732 0.035237066 -0.11041047
-0.31062198 -0.27777201 0.13226919
0.31822428 -0.24467939 -0.13911751
0.34418696 -0.24847874 0.31314361
-0.335765 -0.25095096 0.35867476
-0.11922631 -0.15513252 -0.13016477
0.0088776918 0.18518513 -0.12774235
0.085081741 0.62311244 -0.24357831
-0.31213745 -0.72210962 0.40398502
-0.26862523 0.17306973 -0.057254121
-0.09692882 0.0076950695 -0.17772615
0.31472605 0.05738318 -0.10161898
-0.12816754 0.74446106 -0.12725031
0.28408068 -0.033650607 -0.13281088
-0.25875899 -0.19175002 0.10069526
-0.30644336 -0.4186936 -0.108126
-0.25801244 0.65410817 -0.027301492
-0.32398397 -0.41512603 0.39299893
0.042596214 0.744461 -0.23604502
0.32343438 0.61119866 -0.092555948
0.32317477 -0.430511 0.40398499
-0.1661762 -0.19175 0.35668164
0.26729861 -0.19175 -0.092990726
0.050992597 -0.026655532 -0.18082491
-0.016376391 0.58888555 -0.18977329
0.24094549 0.44692576 -0.11101449
-0.080133498 -0.27777201 -0.22302081
-0.32371169 -0.48491514 -0.075685121
-0.23889071 0.28338924 -0.059217375
-0.066704884 -0.19174999 0.33148143
0.29295421 -0.18376744 -0.059157446
-0.299357 -0.27777201 0.39993179
-0.323984 -0.36517727 -0.0889166
-0.3008981 -0.42684963 0.36819801
0.30748045 -0.19749966 0.13143428
0.12122395 -0.27777201 -0.063773811
0.18880643 -0.154696 -0.13654113
0.33240601 -0.70105916 0.38012409
-0.10035981 -0.19174999 -0.17478713
0.21067625 -0.27777201 0.06868162
-0.15604505 0.6229167 -0.22286558
-0.24414378 0.64774603 -0.18480048
0.12656593 0.59665954 -0.16761641
0.13150233 -0.21811451 -0.21964465
0.32741219 -0.70799166 -0.107995
-0.21766213 -0.18256254 -0.10096607
0.11946941 -0.19175002 0.34984538
0.17969631 -0.23487806 -0.21329458
0.2993972 -0.28032669 0.41576499
0.031188844 0.33855349 -0.20173392
0.11042529 0.7275331 -0.095977344
-0.078497916 -0.19175 0.33303723
0.29048222 -0.29927927 -0.060428001
0.30441201 0.038187549 -0.067022122
-0.10196437 -0.27777201 0.22393757
-0.31403807 0.69447207 -0.13910367
0.093396723 0.60045302 -0.18110098
-0.21994974 -0.0048102289 -0.10888683
-0.276416 -0.83947337 -0.092114925
-0.073026195 -0.19175 0.15355268
-0.096919633 0.40888676 -0.15454389
-0.22833157 -0.19175002 0.1305252
0.32088611 -0.20704202 0.15650871
0.19714355 0.744461 -0.18915404
0.044956509 0.48379281 -0.19106337
-0.15624626 0.71684843 -0.073050953
0.067296267 -0.19175 0.058374729
-0.023846583 0.46991408 -0.17171425
-0.075542554 -0.19175 0.35868305
-0.15034035 -0.10486981 -0.13052893
0.0039588781 -0.16175327 -0.20404458
0.29215136 -0.27777201 -0.087932818
0.069969989 -0.19175 0.29272279
-0.33042812 -0.21982913 0.14899707
-0.10335793 -0.19175 0.24325575
-0.30492625 0.74446094 -0.11801586
0.044755153 0.2681261 -0.14129022
0.29930681 -0.18938391 -0.1260183
0.036314532 -0.059037559 -0.1989547
0.16397659 0.54889542 -0.09983135
0.11539961 0.74446094 -0.1733311
-0.26558751 0.64338005 -0.037469573
0.32247454 -0.42434818 -0.072208002
0.060856316 -0.27777201 -0.024020076
0.14234838 -0.0028214203 -0.097667381
-0.039228424 -0.25179312 -0.24105427
-0.014120595 0.14171414 -0.19271319
0.27804279 -0.27777201 0.074179232
0.034911256 -0.19175 -0.19868626
-0.064034618 -0.21778668 -0.23046781
0.086570442 0.744461 -0.1830318
-0.2326622 -0.27777201 -0.036460571
0.16503686 0.49876159 -0.10027058
-0.26193821 -0.21885096 0.40905395
0.16180231 0.52435225 -0.098930605
-0.29484159 0.12043475 -0.099077336
-0.33538032 -0.22335419 0.3768163
0.18554688 0.44940442 -0.12109959
-0.027592208 0.74446094 -0.18239649
-0.29266256 0.039747477 -0.080571875
-0.015085452 -0.047501594 -0.14116026
0.3172363 -0.60015321 0.36819801
0.022319082 -0.27777201 -0.18819198
-0.18282565 -0.19175 0.045955062
-0.26057786 -0.17067799 -0.055540621
-0.053591512 -0.27777201 0.38284597
-0.015596254 0.56253433 -0.14182597
0.12749074 0.17755431 -0.16832614
-0.13992818 -0.27777201 -0.20246501
0.23213601 0.744461 -0.1512405
-0.31979534 -0.3449797 0.36819798
0.26384526 -0.20975925 0.39628139
-0.01859138 0.11210498 -0.18688658
0.17412043 0.43733054 -0.16636062
0.3089751 -0.69919002 0.36819801
0.15335798 0.28637061 -0.17490524
-0.323984 -0.71370775 0.38503951
0.32147899 -0.483953 -0.10782622
-0.22077122 -0.18880501 -0.11087032
-0.12579426 0.16740888 -0.20434192
0.12898031 -0.27777201 0.30521426
0.31618053 -0.20369253 -0.018875405
-0.15834135 -0.15195991 -0.19687678
0.12753913 0.744461 -0.13334589
0.0010254383 -0.19175 0.13381815
-0.25738552 0.60045302 -0.098200582
-0.11108495 0.60045302 -0.12761351
0.34418699 -0.27500522 0.045899682
0.14986032 0.15431383 -0.17536585
0.17238714 0.053351443 -0.16769081
-0.18314159 -0.27777201 -0.20090215
0.24137568 -0.010534272 -0.076925099
0.13598119 0.0054066926 -0.17267708
-0.095517308 0.46872112 -0.17005222
0.071316503 -0.27777201 -0.13199779
0.26722151 -0.19174999 0.2468868
-0.28819698 -0.71910959 -0.081105918
0.25429672 0.744461 -0.10393011
-0.2382645 -0.18351474 -0.059476797
-0.1347643 0.5538286 -0.12683535
0.31180352 -0.2005769 0.094009414
0.24022707 -0.1557643 -0.079697713
0.080350146 -0.27777201 0.32800448
-0.30080378 -0.27777201 0.05085985
-0.20216091 0.6410569 -0.047987908
-0.14267762 0.49433559 -0.12787746
-0.13876057 0.71605808 -0.08059784
-0.30026272 -0.1983569 0.28254318
-0.17048225 0.22523066 -0.18080777
0.17777497 0.28588402 -0.10880628
-0.15748337 0.60045302 -0.2187725
-0.12583739 -0.27777201 0.15967941
0.27653775 -0.27777201 0.3609297
-0.25620824 0.52374423 -0.13363044
-0.0014078865 0.12083129 -0.13079472
-0.18254207 -0.24650455 -0.20914769
-0.036559314 -0.27777201 0.052925538
-0.061258856 -0.19175 0.030253932
-0.31814668 -0.58946091 -0.072338998
0.18862727 0.27142766 -0.13790157
0.018250324 0.37317193 -0.20519499
0.18804517 0.51785612 -0.12981014
-0.15420017 0.43916884 -0.20005396
0.028351203 -0.19175 0.29444665
0.086689435 -0.19175 0.33028394
-0.30821651 -0.27777201 0.30598637
0.16948044 -0.27777201 -0.11095689
0.11656663 0.29134956 -0.11494265
0.2539348 -0.26279166 0.41576499
0.12449013 0.74446094 -0.15670516
-0.066485174 -0.27777201 0.15136144
-0.276416 -0.3319743 -0.098221853
-0.32550061 -0.21632165 -0.049779959
-0.335765 -0.25732195 0.32062399
0.13236386 0.67491889 -0.089405499
-0.22231856 -0.18310454 -0.11431342
0.31240964 0.032532267 -0.10929421
-0.08183071 0.60045302 -0.15599895
0.0098756999 -0.27777201 0.36054367
0.051897381 0.74446106 -0.21226844
-0.066788353 -0.19175 0.35772669
0.29942566 -0.78584146 0.40398499
-0.20991132 -0.27777201 0.11870009
0.085215211 -0.27777201 -0.20191234
-0.24337706 -0.27777201 0.2505486
0.098821402 0.744461 -0.10373382
-0.020630341 0.47230667 -0.14987867
0.0036786664 -0.19175 0.013467584
0.17319079 0.60045302 -0.15027431
-0.26673245 -0.27777201 0.15026408
0.031208877 -0.062720641 -0.1308904
0.16623005 0.21657273 -0.10076489
0.19371021 -0.27777201 -0.13276273
0.30958873 -0.7778514 0.36819801
-0.3084099 -0.62987292 -0.072338998
0.11437245 0.13539681 -0.11900233
-0.2264497 0.41706663 -0.068899475
0.31745821 -0.71792138 0.40398499
-0.29353836 0.71665335 -0.15437576
0.31541792 -0.29939187 0.356417
-0.13081737 0.38847134 -0.12724443
